ply
format ascii 1.0
element vertex 852
property float x
property float y
property float z
end_header
2.811350872614505 0.5546013780893075 5.969532343360877
-1.2590496210487099 0.46028132394395505 5.55847364306107
0.06539938124897576 0.907440603766928 7.348315494377406
0.9383123425170478 1.5890288696786175 6.984221900149348
-1.9324544753570612 0.5993835613892919 6.618847968685645
1.9334998549912301 1.5159221296343475 6.632028269493562
-0.9820561616527816 1.7429576556620883 7.886564361258621
0.6683604871758865 -1.268187912260525 7.722607200205537
1.4648056293850276 -0.8446897460308018 7.9497163795322425
-1.4199795593427966 1.6686906235753174 7.1575826008730505
0.4990855913075892 0.7537951276303044 8.140226701914653
3.1720618799139375 1.2970378440626733 6.240673575942047
3.23029620456279 1.474598713136737 6.342323683056745
1.1898403284249253 1.6738514580809878 6.751694169894572
-1.8734297575814525 1.379951780199669 7.5219849202552735
3.797006633278541 0.1276916103707687 8.703492471217043
0.3678748086940847 1.6394037543533755 7.021278614395659
-1.886179900173186 1.2863609279594623 7.270124058210031
0.8258949096694955 0.526021491361981 7.836374489385237
1.7325632943114821 1.0319131206676067 6.891654426246466
0.7856349558280614 0.5802738342861328 7.614769765376062
-0.11924182834759645 -0.7116118900658109 7.55185242790649
-1.0920929046622998 1.5987572772461727 7.2180965996076765
2.06903394751254 1.0546806375086104 7.126823164544211
2.2231687148860697 -0.6476721216845749 7.303357576967906
2.522444197153934 0.5557657053604387 8.659622580264047
-2.0583354903180515 1.0795592553517972 6.891350141400145
1.0542793939570785 1.2013245868455193 6.956107904867335
2.2410737864847543 0.5837931439209135 7.073162588610744
1.3505666969305674 1.6613409995759412 7.608843606154956
3.3145146638492817 0.6444011533090219 7.383401826331108
2.7771848388418077 -0.6415923178069389 7.289732940883581
0.06004017462223887 0.7856566337870239 7.3742939737367035
1.4973397062111882 0.8884935319126881 8.785853194950201
3.3797636142237395 1.227983053129934 8.248173222619544
2.752496345043636 0.07492421069905802 6.835888104078577
-1.9036773268983473 1.4217236083983862 6.882041767333348
-2.040870641126144 1.3101077635311118 6.8619216958411755
1.6063634824553306 0.49623970189389816 7.251737335840171
1.4387315176768516 -0.7877208090587214 7.428562893878245
2.4538790424553483 0.6241173222024758 7.906349756581783
1.395669506799851 1.2896269494979526 7.842579403313065
3.76452917909588 0.538442976475265 8.735015442854028
-1.3768880318981496 0.015017173540387785 7.42980216003262
3.3384992556734066 1.4073817598772789 7.044693229593195
0.36937667481947223 1.5828510130379527 7.188626529983194
3.449166721900271 0.49626140961915294 7.239256914762752
2.7446306109125453 0.006626077413159726 6.82794579448624
0.03403143972105327 -0.6455928278334405 7.306699357181102
-1.5302126458672678 1.7436113862285736 7.081308463817663
3.391702282313887 1.3502147612822153 7.484114011228289
-1.9193465329894255 0.6121862055375527 6.6534192755006005
2.8560992000564887 -0.27433553149195533 6.951222044891083
-1.9080486124895146 1.519312310137808 7.314539333852553
2.2873949975492884 0.5040472631316519 8.189508007764056
2.1217935379054946 0.5440795818322401 7.248819275491496
-1.4306757517092157 -0.2738298740857379 7.312798649951201
2.079406214364893 0.6282243372311688 7.2833809292921625
1.3575672909267915 0.8940253198836952 6.26093193495328
-0.19174865429113264 1.2804574256569732 8.1837495563577
0.050998538202086996 1.0499475777177985 7.347365110107522
0.5328647547469598 0.8296335905495811 8.004317108636492
1.15449927715893 1.9749312863624122 7.687574140626077
1.0422135363158762 1.3694792961375624 6.8862530225788205
2.8895495657150163 0.43879390337971685 7.272496320484052
0.11631456887366054 1.461673978145408 6.975412904279257
0.8301942867937918 1.8367255498604371 8.901983803272815
1.849475784149394 -0.6215207322468177 7.394926965690091
-1.9239818294758502 0.5354495171977631 6.652214634408167
3.0539612539748875 0.5547777575936751 7.307722410114159
3.850957252647013 0.49925665866060276 8.952227967925223
-1.964758125286695 1.0230975059988037 7.672562813062308
3.0346570775274113 0.5402408840771467 7.479088351420113
-0.22895808726377442 1.4850020347224362 8.154393216634926
-1.3722795761757987 1.6163126240154502 7.291566607753516
2.394844995257204 1.2998329955384307 7.725665402356865
1.7584048702985406 1.7150066252328025 6.729549255337019
2.4279014341980094 1.8459772824473761 7.116132982462486
-1.976802623628841 0.9808320163060955 6.735448200927559
0.5152509034133532 0.644044434011064 8.390696295526627
-1.3527846052041799 1.179768685234408 6.212071989403574
1.7263644145526627 1.799391742399248 6.771749309317333
2.621325237850228 1.4123777193438367 8.862431434947386
0.9425179596111806 1.536535782587665 7.194132612947115
3.2689736645076906 1.2627001804660796 7.66582608539766
1.7984954861209412 1.7846819812635064 6.7514505351630625
0.6585397104744417 0.5235892385835867 8.041252834533008
0.09080965770986987 1.4919141199861228 7.029625215643127
1.009435855970823 1.7928465364691417 7.078048846560889
3.9228291271863984 0.19186015859154615 8.642807013514577
-0.13738825449492542 1.2593792961546864 7.913512738366487
0.5961716656940724 0.6167785350817333 7.85849865291285
-1.4528011278672661 0.49065566155601115 7.165907419942356
-1.3227284826680799 -0.35780781670811035 7.255224691051945
-1.5041287841672157 0.4602547083022611 7.492391432680471
1.7186475692525125 1.4775206365405418 6.792076172362536
-1.9752204179261241 1.428934474324497 6.733732028575321
-2.2153241184235104 -0.7206253982878771 10.064037204257415
-0.9855777534412291 1.5177687281002838 6.146392409272708
3.2043251549550957 1.24703329603126 7.303820622424767
2.6693248965423475 1.821291294211508 8.412238673690263
-1.9501377241536226 0.7179592339514471 6.746614524445826
1.118247617576115 -0.9603420525429134 6.71138127625963
2.5340995963554542 2.0639296211182687 8.07429810410573
3.756006822244223 0.25900037358099604 8.87160977347615
3.28995933792477 1.3491823568357593 6.736442494094588
1.7458898901093516 1.5555051310036918 6.851233504518925
2.428618493539078 1.8710440877244034 7.0405111947416295
2.5084456657124097 0.6857715008050779 8.008906188426618
3.367024939356925 1.2993752825693248 6.864131226004229
3.2267909719141175 1.1791543933760211 6.868089965639362
0.4960842039073094 -1.177346865418083 7.644485193470954
0.1362457531568282 0.988572878824987 6.959268427058946
-1.8433883215936395 1.8117314132559643 7.751219434399094
-1.487600030921588 1.7791666713271668 7.197378649639107
1.0993073090616376 1.6299676791396553 6.402691427554213
-1.046745635517273 1.594668950087597 7.215010702870801
-0.34818879445097295 1.6684584560925326 7.21263944051246
2.913423645805606 -0.1334944164889051 7.156983187284384
-0.5464799056608953 1.6436093731490913 6.9733934337136425
-2.1128542993905755 1.396725793900051 6.85970334225961
1.412847878042865 -0.8152207568859561 7.461477813958567
-1.427307974591961 1.760999662259078 7.0599663077710595
0.5028849840549574 1.0075080765743003 8.0309070532469
2.8982929117939666 1.5962871240027396 6.710183768486514
0.948091747492428 -1.455506383846112 8.337568467637269
0.6853400149064921 0.5080280050128888 9.352023083455245
-1.7758891862960913 1.4317562859973905 7.107417797346086
-0.34337454565061193 1.8041722195883607 7.515123543123318
-1.9332481342130308 1.4522327862172226 7.674592958645972
2.398054677908985 0.6812511168242767 8.146643851335629
-0.19224391085224024 1.252030634195048 8.43876810078664
-0.2557144582029184 1.372097433473614 8.422514481352508
-1.888772393769879 1.1617940698107876 7.456807526481628
2.5698471461376813 -0.021822181786088746 6.121902683611825
-1.9742115325644403 0.5813493775008438 7.271951751649384
0.3717804525342747 1.6168302005343544 7.569900660859731
2.660276688910269 1.5584094756918963 8.527274421258742
2.4993707342520897 1.571727022612511 7.36490948805813
2.9309182769629563 0.5128891979147434 7.345813189379623
-0.35113105304843767 1.72214486811449 7.1685632755707624
1.0204332420257745 0.659480344770563 7.704928841459434
0.081640074794053 0.8314621338422885 7.3323366933293554
-0.3022477819788119 1.5165281591606576 7.889570705945557
2.227400690365367 -0.6136565817154123 7.043696582275677
0.4930398799247251 2.052036626900075 8.296969173762456
3.7148665619817 0.5780361486835243 8.611160685083409
2.131534684999041 -0.6580629911401035 7.439249082080799
0.8043174331080922 1.9428396226191555 9.873872504022225
-0.5143310062692003 1.6270615421905492 8.156590191149139
3.2924586038894637 1.2433519565472015 7.076934896897166
-1.4815623706925263 -0.17257874427622133 7.418711334941099
-1.6798419221017535 1.7906043520234527 7.291928869250186
-1.8483695574470476 0.5147435380939157 7.68087382215727
-0.7607144910653125 -0.5936280244005465 6.722371571938893
-1.360119523505771 1.8915328187815155 8.795897634126256
3.315820020239206 1.4532950156298787 6.934604507465324
0.32981654558750195 1.615359301985996 7.3207786763745775
-0.18121575183854133 0.9605852232950126 8.377807158174218
1.0434793209735043 1.3249263201684514 7.220145291730852
3.250215039542016 1.0641197458320188 7.0942171512679835
-0.20993782281477746 1.116325524304263 8.218179787257228
1.070427011332993 1.6795889863259974 6.80050401765421
2.8736016728309774 1.157785747479927 6.608628444670953
-1.929937563609788 1.5314294876736534 7.175182040803831
1.5695383104484484 -0.5833450710082976 6.790674572026247
4.023236938683286 0.26726320253799174 8.919117473997307
-1.8721564842894032 1.6909389705451243 7.527078746128998
2.359233329757265 -0.6472351373566414 7.352907942101837
2.9122163822287623 -0.3846046325680336 7.094792374240459
0.15875895883956836 0.9290816151059904 6.7985565610050305
1.9627729530263274 -0.6045661158870532 7.312029501949514
2.368287864177474 1.7843335951375523 6.6078951812505835
2.3304579335076454 0.9839923280419305 3.9230593370946623
2.3727248089681847 0.5174262740024284 8.032788896680817
0.514224852518146 0.719182355581031 8.26804025388046
-1.1564446747454076 1.6445246541720004 6.9841254558876855
1.8572485417811033 1.1247606342857077 5.176282907652125
0.360860962091354 1.7668605927095637 7.125386588393286
-1.8205690498243627 1.1440774414333965 7.694531042086129
-1.9612056768306334 1.4344167296058838 6.724924796041375
0.35021324885729577 1.5923816903913661 7.014050433371742
1.2720069011032968 2.015503304031853 8.11546472615907
-1.8428063812426383 1.2973075158223533 6.927952199758781
0.15544357898053063 2.1451712499812725 8.513659069326652
-1.9242142906729758 0.5865264341687187 6.7048680190127605
1.17502671935127 1.6784831925582684 6.9084108060940705
-1.9419937379428136 1.7280962573615137 7.604774359981268
1.4305147801065463 1.4335854412312856 7.401572581151534
1.4022793038007335 0.8043453350549453 7.263606365439093
-2.213127658507533 1.2593811806639506 8.094204458697732
1.0088187539021836 0.7008368896476328 7.1069572194926565
2.3924882433998986 1.8112771305003774 8.352849741087518
-2.414079557664103 1.4137995606211644 7.933838752519655
-1.9576555185583524 1.3769138399232894 6.7606482856178305
-1.2774666511072392 0.1376535888724072 7.340770743150861
-1.9931897319277585 1.5867605726949203 7.223582327380124
2.0152391803224083 -1.0861781175386298 10.138820673556213
1.002048657825938 1.0623400926087845 6.054803115842648
-0.35358537209737273 1.533527155821564 7.418029988263237
3.2595093594956173 1.424539507638466 6.66639636004934
1.775826921098819 0.4838350668719697 7.1046384834011125
0.06986536450901448 -0.7966228182543397 7.5591700819095395
-2.2004675191696794 1.2683999266518364 7.037073398793019
1.2206784403048982 1.6708897834055578 6.776973842766021
-1.985968984788108 1.242471577232862 7.1130503128344165
0.062359074940140036 0.8788288829444172 7.161508432283507
0.7304339085220038 0.5252356629654618 8.560207549825218
0.9921804267286787 1.5257366564851869 7.0027646834414625
2.3428885538786584 0.5763962254099371 7.725526774899937
0.2848759604726223 2.620478084687339 13.294851040924426
1.729679741445665 0.9981191637067885 7.0690230608241515
1.8427061630220853 1.1440683394644062 5.398556916899092
1.7204351551421322 0.7638047355844381 6.997746197695857
2.6048997223475765 1.1852480327021115 5.138784035063025
-0.28527381730489676 1.5746863269740754 7.9115192858719245
1.7553120394524677 1.6787202174828462 6.707609159136608
-1.9341333060756944 1.4042563055865411 7.5635968490026215
1.341900345924059 -1.036671923998056 7.714431109180051
-1.925301071313532 0.46661582017074965 8.028613923323803
2.1778413835798527 0.5584286336339863 7.36408945548574
2.512832015324307 1.8549040492501103 7.340840271682934
-1.9738486931633932 0.8766749954701647 7.250910091022607
-1.949659097661173 1.1132450674761731 7.246217545701303
-0.35129407585464967 1.5713656169871033 7.221770783074957
3.195158298575838 1.4721465575272064 6.349778361853177
1.7751557892132057 1.909163124950118 7.320497456937067
2.8654435164996275 -0.030593792409596143 7.1529752037479195
3.3155618008773318 1.1515125483306148 7.692254599314482
0.9803241313108197 1.1914079348065245 5.710838152608261
2.8090100981270236 0.34452067668683317 7.24911878621806
2.792729395657527 -0.025107766249654696 6.873571616982532
2.405355729357911 0.6439022749642136 7.805481569128362
-1.0564995347899648 0.4210839192998218 5.1557182142278455
3.2908193547186233 1.3979368906260428 6.770429947959595
0.8646571796540775 0.5141227361387356 7.7811957263151195
2.7956310604950136 -0.11791569759056997 7.038587865807395
-1.4050734087667656 1.158009163719273 6.304105095402543
0.07459756635074477 -0.5924463467564287 6.693395736446224
-0.21467837239788823 1.1751179046491722 8.30497523760501
1.3483836916152319 1.7304081939164313 7.620169938773508
0.3516271813210121 1.6156287609453444 7.0523954717845845
-1.1222025612353614 1.598127630716793 7.020468291420667
1.4869202409313254 -0.7227401147441818 7.223242147409006
-1.1583364451544143 -0.48163638034163037 7.194278352553367
2.581596574613821 1.7450114064475142 7.95152268143616
2.124550015556417 1.161465188467075 5.954160485274143
-0.38124636927894784 1.7514329368427337 6.853368773463718
1.9223456934550158 -0.6323242477508707 7.367431370007678
2.01186140893155 1.1561780024020312 7.103196497773629
-1.3258454188678552 1.7470464775611538 7.082867917884487
1.3932955213951321 1.309521100963835 7.720975861481671
0.5109746995855038 1.2558608313329802 8.527408133511488
-0.36483047155219395 1.5109918096765889 9.339119194719718
2.856927818207129 -0.2539669974862174 6.783996615027928
2.4908576886943448 1.54075127227064 7.795691282934064
1.0488372104590558 1.3189651697445832 6.985945568972653
-0.0680729365547732 1.237864746985668 7.759742388205312
-0.38131773393474494 -0.7080992793329162 7.657243308691255
-1.9195132834333082 1.2029863694472545 7.579362584418662
0.6107152523579675 0.6633834960377252 8.196687631626958
2.4743013431055396 1.9325339339428307 7.888631053392204
-0.3256231454543035 1.634039274309778 7.5453500652450725
-0.9632206007037589 -0.6887632921221862 7.528374650131887
3.3389045686358703 1.445607516451 6.658287685070302
-2.0316630158847113 0.9391533113415271 7.394811081711286
2.3833209461058362 0.5781519306813998 7.720342970160287
2.2372141127806024 -0.6808964684570905 7.342455337758802
2.394346212806967 -0.6308134039388436 7.319391107711805
-0.26938614357122015 1.5475772931992071 8.262958794369393
3.2230289356976356 1.3117750297993676 6.843066955562383
0.9639672101630558 1.5603919476094774 7.106993721469537
1.429860847516617 1.43241411997741 8.235701531734925
-1.8714480880991444 0.4988571736872608 6.697445929173042
-1.958840810068188 0.9935766255691597 7.289484836789571
3.3132045172611524 1.2611764479355976 7.165336967546628
-1.8486431697581014 1.3484480537877597 7.602200266311748
1.0133016511977584 1.7394640706761866 6.81786482153343
0.6293688408049752 1.7501254669278115 8.504427605100112
-1.451291001419838 -0.4196967830650879 7.782695414883928
-2.8043049501499206 2.3006189805267465 9.756246826671433
-1.8399843468192734 0.5623320556633986 6.849283404788817
1.3088402184420875 1.5134148440879123 7.03306331399933
0.5119703862991496 1.3519762662593664 8.00281960993795
3.2795638596015753 1.3609117897610408 6.642620850866935
2.0350569779939436 0.819453274172726 6.981241108034443
0.02308396860692019 1.5617842322839683 6.44075427793732
0.10094933030396747 -0.8271314459891976 7.730928480498319
1.5216618777465307 1.4185411048317071 5.888747540024266
2.8539893862667896 1.56806896687301 9.57675953150968
2.2090312786909774 0.508633361319079 7.227916555394503
4.079222147745911 0.43449306883617544 8.966726952215046
4.124664944589975 2.8082823539372206 16.716314575204066
-1.2657260067070648 1.6703036177785606 7.289050675641373
0.6496045697655821 -1.2460548106373828 7.488896836613401
-1.3411078025672962 -0.6205938520988701 7.719414376793926
-0.04607112073258468 1.3158750540211697 7.627360749565285
0.7521815236396353 0.5611428294341619 8.505765521061278
-1.8852389074531515 1.825490174336991 7.600160416491675
2.4555717872712437 1.799673660289895 7.298807301586694
3.176969522717984 1.3477613253032752 6.291891475185427
0.877944055468483 1.2318331531904745 7.206810825414996
2.291240587377537 0.6367887643827008 7.547388438272223
1.6017320449139754 0.6206553574478149 7.828514404169701
1.3472980958420442 1.5621989174672402 7.684877203206877
0.3583942573964891 1.5136753517474844 7.29368411134991
0.24323789450042543 1.5429880142378278 6.89148563925544
-0.9016929430377707 1.5723630478382187 7.258739080557677
-0.5489286733232901 1.6618308718169659 6.921938011447421
1.4913499810194926 0.7498928121025334 8.009618692777728
-1.634725147675406 1.459432929321852 6.943552949624612
2.7656528282308 -0.2850552163572956 6.744213887143102
-1.9987009316357547 1.4472968109350262 7.1878674298548555
-1.850257962076481 1.5139911631111276 7.4016993950475065
2.452917530422491 0.5955322860732988 8.328615756874157
-1.9323947929164307 1.3462799064413893 6.913384120321772
-1.8513195432055385 1.6663474552078632 7.532250003660278
-1.8591771034577542 1.4643670602453769 7.4639693264458
1.7483196209062424 0.47863607301407457 8.067003096468765
1.0063301433963647 -1.391356890026705 7.921447457981822
1.3847876601339277 0.683420157078015 6.619558461483177
-2.000466317967729 0.5398481606301764 8.281282977042462
3.313936900353959 1.1423598533884811 7.354543457470524
-1.935176057413167 0.8543055175509322 7.027928747309273
1.313057536360399 -1.119126943816229 7.505665090195004
1.0806370826033576 1.692883771015785 6.771528891333379
3.5147802616555155 0.4531302416339591 8.138081379028334
3.618689393243027 0.5855799389077739 8.46841601392451
1.8847130675424935 2.4171873543252147 9.071243946095862
0.9470145179871773 0.47928379993427656 7.719482850612146
1.3848101610529204 1.789760225968893 7.723515892357
0.24773184998926479 -0.8357802225033468 7.576567815325117
3.0813344684471713 0.4736432905864755 6.141609200681861
-1.8852205632821701 1.592572246917931 7.566441813283647
0.37977089519488283 1.5393007048936038 7.1751288558921384
0.423522592860357 1.8318624465081697 8.339275571472736
0.32794428650883245 1.7213245296386028 6.963859631158596
-1.685454500137007 1.5632431852048465 7.434338023657455
2.112515803415629 0.5557106442075164 7.490580105267331
-0.9909453420972942 -0.6980813464230617 7.741752414242309
0.5308237813100953 0.9131849156822163 8.104892587400169
-1.6145364057309348 1.2667045926143063 7.289744246748059
-1.9712581168468575 1.038353705479033 7.27355888024405
0.588885222032534 1.1107178768439179 7.9434637270925545
0.9269165146047151 0.6044947242928539 7.415191690325491
0.9575847074710516 0.5356916852381524 7.759675823222664
0.9839724731276855 1.4319108113369428 6.9076583540962675
3.259506617242746 1.1309200482797357 6.9477811480936555
0.7839869609714547 1.6456128012368634 8.101503497333969
-0.30203772853372657 1.824624861401298 7.228479151151636
-1.1470949244950124 1.8653664696513634 8.31889567731632
-1.3048986567051326 -0.42709083496971645 7.453574405161818
-1.7675743933687813 0.3848608075524989 8.252487913982156
-1.7303307604613667 0.9332634535211553 6.54577190436678
-2.003983985546767 0.14467182127964923 9.075703225647377
1.7525043643425047 1.0979601669403254 6.909735603799264
-1.115454610359714 1.6407638673125216 6.970969859390591
-1.9128493143002308 1.2394294479050139 6.83129145455068
1.5070046625822293 1.8461499710029614 7.087580123320466
-1.9778311311786603 1.2206029099228115 6.618475458137595
-1.9666938910230898 0.880770632962466 7.272384441523352
1.7692427873008594 1.7973939128668777 6.741955967261971
-0.35467962623627614 1.5331648928264634 7.253754492770809
-1.3384074460447293 1.8103048409771396 7.1882143020835185
-1.8276012696277983 1.6243324963518475 7.552965810666084
-1.792316929882165 1.584124049035381 7.429982535220506
3.901435869965855 0.533238414540991 8.831984964307296
-1.6555750542452765 1.0902215788368355 6.589051164577717
2.570865307027084 1.031370346389781 8.061388537537649
1.321680820025431 -0.7975816547529593 7.278903271002668
2.3153289586382897 -0.6721432415462858 7.347090351612062
-0.16216873060568027 1.5957491423477457 7.516857236327195
1.479707688691474 1.1436184450445332 9.508820102726927
1.0858898603052705 2.0348554999283737 7.842027704451728
4.106222823110479 0.2818868879489726 9.059631445550592
0.602915841735177 -1.1840841311760875 7.484227212184868
0.49850537190571753 1.384348342577998 8.020038079450021
1.66591258864269 -0.66470432848562 7.340550151525828
3.3467266539579756 1.289135909242782 7.835715530181235
-1.020539542417878 1.6312863410372203 7.601994854726598
2.4740054490831564 1.652085142898089 6.828695985900433
-0.35858564005681215 1.6510142169263924 7.209929182772021
2.7634479919349304 -0.38012938298545373 6.98857583183876
-1.1588642504317712 1.7132023865232804 6.956019213896326
3.8912881118367326 0.49396371468139894 8.427440934142728
2.7335869361193006 0.1238610068822329 6.9558910903600335
0.5027574073824008 0.6784547108442918 8.318780260098567
2.67030755215652 -0.6714703392266679 7.407813022650512
0.5972179395873057 1.823639768378353 7.1937242986697285
2.041386021826734 1.0749824059282538 7.133472228221248
1.7687839889111359 1.3612722435659 7.325164405941678
0.29341262818548175 0.5901399600905379 6.074849088433535
-0.7187181913320788 -0.6519558038529256 7.471288416133576
-1.8544661799934428 1.4432473461323019 7.609045049792554
1.3686287297020026 -0.7213105280380243 7.282317055876634
2.3065592064430467 -0.7071349923038303 7.485997606456273
0.5409747709275388 0.7175351063026241 8.18136991514673
2.5404732526207057 -0.6518627016701644 7.22621240986934
1.6990206532434207 0.5554025005718883 9.289621852398398
2.490853465571137 1.6312540951221564 7.930812983697462
0.9129938567291906 1.1364937369841517 7.382016237262485
0.8923114843113911 0.5150597815499808 7.356364928880252
3.2322600376824493 1.4424330999016928 6.530467341879915
1.9302201487304804 1.5643413183921369 6.759511151041449
1.4204908726070964 1.1633516112143572 8.029045885509678
1.3855905888032987 1.6089842550231006 7.363162246481578
2.301832851027335 -0.7422529057542661 7.4891347046816765
3.3093423507268254 1.3603308321243177 7.907591814245612
4.989831424847213 5.175921890114752 20.178287395361554
3.2648053132959154 0.5839054321716468 7.347191141959051
2.6946636862047844 1.5342698396091698 9.009676201079216
-1.9531244155704153 0.5166709611185105 7.821940156969891
3.0364262608220205 0.49285565799001774 6.535121886332035
-1.8762001382965954 0.5383439130362326 6.83952858453674
2.4752389950145846 1.5579156964596907 7.86467268029153
3.228686294667038 1.187991935867599 6.920394179420263
0.5684735573143036 1.2449022954128406 8.220255985653305
0.5438269350770966 0.683695455447419 8.383098281024209
0.9416909540134477 1.7271411740910587 6.678601733825911
0.05821948580226847 3.4614469993038455 23.067725187964843
1.0050968741463673 0.7829135452629604 7.236359166695535
-1.4043792156772912 -0.1244045483197544 7.447232238089292
1.4267543430889211 1.273547403053438 7.475162521936017
1.6337508702602674 0.5621703770797184 8.183668201233209
2.7308095515625257 -0.30780106109862637 6.603109823557268
0.45172681844606144 1.4442285082418609 7.977771797330501
-1.4796747547224225 1.8342289430596683 7.293334871808468
-1.8427015588871225 1.1804480056038287 6.757925887748472
3.2163018831147268 0.5820438532426042 7.341736555090514
-1.9881323319909212 0.642306362665267 6.652698572898792
-0.9864132584635614 -0.7532061794270842 7.66441016072784
-1.3911209217767966 0.07939666854652128 7.467171180902335
-2.0910400990499136 0.5131784312621458 7.654228925434092
-2.2736806154029106 1.4112567101086182 7.589672793211673
-0.8493381076194053 -0.6914058259001585 7.7120950485518245
2.874768956781054 -0.47665474281129017 7.539829668792126
-1.2665280720960732 1.4080500906003375 6.466248300596309
1.2017243915817117 1.6944674901420775 6.628018745881882
1.0085258197681704 1.978288642622163 8.226217728918105
1.177514580187505 1.7442998830434682 6.779550991353965
0.042852531764927315 2.9458807973287313 14.207777398086215
2.5373994445187646 1.872797231844512 7.8833805449537415
3.342437674668334 1.3699184061577818 7.824411737317219
1.4180242579657394 0.9441172530718149 7.829790265317019
-1.2905239449103914 -0.5278296430362674 7.716068427256479
-2.5516231948397037 1.4449151811841192 8.355704520702668
0.5168579868771752 1.0535512326564853 7.944043193369438
1.445447095597713 1.4869624281518332 7.80471335207408
-1.1968208033785204 -0.4168626021052458 7.309727678655079
-1.8749750825305576 1.5205779842364147 7.833641725905735
-0.09203820783816119 1.1318681270630724 7.973891432835568
-0.3808070018029701 -0.657466584802467 7.324135322798354
0.5619385879457954 1.0579096847587288 8.199955885874997
-0.5944200712949556 -0.7284327507268148 7.349129241279262
0.4255053471975556 -1.2220520983942058 7.765799221711427
1.0378276104484156 1.5512768295328123 6.849478772463447
-1.182138684945818 1.7044405144132446 6.934374762962009
1.6579852754281599 1.4986173176625541 8.267051957789429
1.3490367057618067 -1.0572411287878012 7.662197116493818
0.5293648045324074 0.9788208786814339 8.067755603972074
0.419162353637768 1.974200043823669 8.047443155955314
2.377395591166694 1.654315767498553 7.398333810954247
-1.8769192469174527 1.7619942337960148 7.490722631304214
2.297422671608077 0.5014063888120581 7.838965304205234
-1.9292801041165777 0.9902146327734254 6.5241683508199
0.5258097951440086 1.9293596867412128 8.874886848038605
-1.5432652224987176 0.5011507140170208 6.583162712747478
1.021246255421083 0.7974630339817299 6.883172998197923
-1.956086560732618 0.5053701077075103 7.984197180693181
-0.2650419749671231 1.6095138144954635 7.964728698608092
-2.1639377446325856 1.359032782065724 7.449860273396098
-1.143842493575169 1.1396070343772138 5.780996710364117
2.541316429987651 2.0512740270943013 8.159413418051853
0.3345701038413079 1.6672003488516007 6.829219768019567
-1.6784928984149685 0.5032146455998556 6.701587127227895
-1.9248318651785818 0.9233680588459263 7.105842255681144
1.397604465737539 1.3313765317207897 5.774539604659202
2.3266694946772626 0.6031012627768242 7.694542868067119
0.5874767997140552 -1.1849966020139222 7.375779172760946
2.4426260319365736 1.7093031566137151 6.8110201727725155
1.388764939488006 -1.138588569252152 7.80809473274373
-1.0121013803135406 1.60247800159025 7.41973803048407
-1.4673619343350826 0.9233172146859682 6.0599217446083475
0.9484080913268201 0.6139648903318641 7.469942305348182
1.4566525872389162 1.4627217265166719 6.388709003425843
2.381170330443046 1.7474198411878288 6.557555870907664
2.5609546895706448 2.0349845673425535 8.135070431962424
1.431391548771313 1.162286112271087 7.39073460375255
-1.1754011446821564 -0.7124468346679778 7.668840319394898
3.279110897821794 1.397810916420121 6.618373613019402
-0.2703766795420433 1.8531342579000991 7.341583173942784
0.840801567352586 0.5684358302946794 7.429234223247099
-0.2851081782478353 1.51954184704658 7.646416664551972
2.6522893032645913 1.7422285653778586 9.158957534064143
0.2702211572905191 1.623196864397264 6.893003507450938
-1.8560630929200455 1.2330180610644181 7.5862680385317605
1.3903527010946994 1.0158412315997152 7.695987649050243
-0.02574048659986583 1.3458590994613677 7.471876885948351
-1.8331377587295297 0.5363782945328511 6.70914336721983
1.7356077121068747 0.45548403663153975 7.316416198542424
-1.88936927957528 1.5609115877245374 7.640869770526356
3.241441920355089 1.381931857129467 6.712093457966576
3.316148531636245 1.1064326557464308 7.620052905837527
1.418886880235119 0.9168321088262097 8.038665526957093
2.0231810323533708 1.3166450066033957 7.016157278224212
2.899332014795737 -0.38238853858978944 7.226668335299224
1.744349785330281 1.4356699413076 7.167098335907765
1.7415078245665456 0.6021054576156741 7.855603204258113
3.3986999422111817 1.4158445092075056 8.001544724656062
1.6084057288740572 1.623390798739531 6.771661572159568
2.2022835039806092 0.5254138710455198 7.421913030211082
2.0981741799482614 0.9434785849773291 7.211649248262885
2.404498736124651 0.6537411297781579 7.734492510704486
2.113530920083725 0.5561579422421876 7.1709804147343945
1.5854503066087715 0.6213061245192538 8.00988533467812
-0.9369501901338023 1.6689507575587172 7.953426511864343
0.4083808436149371 1.8012194694057804 7.756792836001925
3.2369945339277963 1.4584246430125898 6.733524222513741
2.1147466749900574 1.2667297000438167 7.764294892283714
-0.32601421233025507 1.6487533559072696 7.601167356477937
-2.009821769743947 1.5218055939221988 7.241117274280411
1.866350854958085 1.6377636192714875 6.711807554427578
-1.3848812699689752 1.8254279354704508 7.636751137300399
1.8084093821607348 1.8499186481013807 7.59599597805333
2.556963641078675 -0.6315378656111539 7.232792038880277
1.745933399459993 1.2778040116664047 7.691019966010358
0.5157923409885332 0.9579653190378925 8.125176956691652
3.4204974842417935 1.7210715899838454 7.282029626341952
-1.2884339693643476 -0.7648990810091807 7.945693977491187
-0.09300725976285262 1.369374720840138 7.721881899720978
-0.2531184762745411 -0.5654513320541441 6.650221545188729
1.4140203427595341 1.8220833563507515 8.05141911385693
-2.2598497873438177 0.9398762547049628 7.67980439353461
1.771540220861736 1.209136218737933 7.4939553757648785
-2.1141842689657 1.7514072953023478 7.97086121160393
0.5515783432111157 0.7928077157796293 8.314208056467828
-0.309339231032567 1.4579820000223074 7.415943569144062
0.9501975935392217 0.7018320801782295 7.382906475699915
-1.9009779489317673 0.9042906663205755 6.954317809777426
-0.00242837842725957 0.7082506950021401 7.672428858841484
0.9986064224940335 0.6169060532822952 7.095028968089901
1.7450837210636667 0.8620629204416438 6.976841580099921
0.43924823096811405 1.5065401916262506 8.050199794706627
-1.9678720486827181 1.0258973077905398 7.2786702213545444
1.0154829191124244 0.8344079432113037 3.800288437867044
-1.4667077805037967 -0.3940799956468126 7.477799899073702
-1.8744963768055536 1.1789622562992097 7.346475796375488
3.3535310373607383 1.4159001750497606 6.629990379944142
-2.0553469624959972 1.423560491812064 7.234104013399893
0.9579634320920895 0.5572261176420876 7.2913372814050845
0.3528450600198718 1.5182317991691088 7.11600713723236
2.760236226112192 0.31644249956949033 7.071543304985807
-0.2718068708973319 1.6147435979768652 8.011206447212277
2.7989204484977064 -0.6950260412800555 7.413675879613386
1.018288416114672 0.6808154764880494 7.046323385724299
0.9025982568398971 0.5441199499018765 8.047044534598047
0.34999732994534094 1.6547198924663604 7.349075010208882
2.7025436779861707 0.4253470585994843 6.355231418386311
-0.33108376943723034 1.6822264225262107 7.610748142493194
0.5866359556523562 1.6701869388864066 8.1404187486118
0.4864066994204975 -1.3035903547888203 7.975872127740885
0.029210303260719717 -0.6643266018293761 7.124180846422719
-2.0756393860871407 1.0092991743033184 7.258481856803758
2.890097289460957 -0.08916730140348494 7.256212919425371
3.2884101249184323 1.611548833267944 6.627093893923045
-1.9251408415796767 1.267521063659125 6.81083707223114
-1.888989328712794 1.5961940994403057 7.233297382185965
2.032855520614009 0.7596430631646363 3.3954369090994216
0.8791202534838856 1.9305704988401842 8.864053610549636
-2.033399183610668 1.3087001249065389 6.765045415095122
0.9316364916362858 -1.404046788611056 7.461719610620849
1.9808457241019273 -0.6992852822244036 7.340689161264814
-1.1408783368209994 1.677768326057168 6.975139775214763
-2.889346745674215 2.4744678843093464 9.187044738590245
2.07219494268441 1.1373064047509065 7.12090121896502
2.92309842358222 1.3044301565441565 5.675264018690168
-0.8652642621325783 -0.7630788498312304 7.707290729929739
1.130962528680564 1.705669042491665 6.8350526171712165
3.310776353454091 1.564779707708381 6.727187979602287
0.683462829080353 -1.4159451535837784 7.971015929263627
-2.040208429985172 0.4954413082225194 7.88661297122761
2.9679812832385193 0.3376673784360192 5.589487941574982
-1.8840643445920264 1.3463369222931907 7.502979447062065
-1.0284208477001693 1.8339583086084466 7.983130160134065
-1.3063492142108002 1.4849975259344796 6.561946974869134
1.7940748750227877 0.9661839646490292 5.311770299102166
1.7844088455952916 1.3612940164442862 7.8384147798146335
3.771448612108008 0.4370461119906321 8.780762541052866
1.9865711595355398 1.322247455930495 6.745380727702662
2.870592257827094 0.3935751881244507 7.213253133348845
2.9963773703971075 1.2088550562724636 6.878802837351417
2.487845832447749 1.5954556573705412 7.5058698003699345
4.08018611284174 0.21819514622856037 8.983256993361909
-1.7393522086050126 1.7578529529443192 7.289146026666051
1.8204078006628501 1.749850487868621 6.7606127756295535
2.015770532566741 0.8862425659027484 7.006730160837867
0.4636424980654772 2.03447843141067 8.13836218961146
-1.205855942173217 1.7091762432667128 7.52084158738311
1.9569472984321525 1.6603832570764905 6.966589437284426
-1.893487901857874 0.49997493978953816 6.614909550729294
1.2387324776838016 1.746710790915702 6.724566141488219
1.6560735992341435 1.7437664279997842 6.591409466159804
-1.7729110638182335 1.8801899629923988 7.182426092149248
2.9634692396919347 -0.19392153732462364 7.324052117276163
-1.9759758597171337 0.5012499308691386 7.1478746674646345
-2.1134997712728634 1.025736559907937 7.421280927536273
3.2757399424236953 1.551188419847794 6.533562534834562
2.6166656523851253 1.7937159633218394 8.669604403880689
-1.0248897614848569 1.6490125850055068 7.411313314776981
-1.3874602922299224 0.49006473305463116 7.109058487003371
1.5796983937661857 1.4454691168994378 6.22668772965716
0.2945833520175396 1.7875007433297923 7.873307719868252
0.6331749854935432 -1.7298869030373378 8.809335845028498
2.0363944685369417 0.9564648945098722 7.035232783371501
-1.9292835944066358 1.3216719005621973 7.806833236593699
3.1407966974322625 0.5045250015514458 7.599768966593622
-1.6405866492408059 1.2087113490306158 6.023189481980892
1.532747581594417 0.7720117269893038 7.888302892138214
3.5748635917743914 1.4181067489051227 8.121543404275213
2.142006666547644 1.1044181482255764 7.881853608888213
-0.23928607959044207 1.6062648833464765 8.171214595463312
1.463694453037897 0.9929316720881797 7.928149269545736
-2.0004778585086567 0.9880810739645385 6.686694715940407
3.243561793206394 1.4362792271393099 6.652492565030386
2.658813149225219 0.12056311927159785 6.517665988560352
1.2152432340848407 2.043706829386197 7.8630513572306455
2.831029342837747 -0.627906430370941 7.2646180892858725
0.6766846591924404 0.5832151948146593 8.055016284568081
3.3739383438488546 1.2163080174908836 7.520570880676612
-2.4083477178782404 0.45469256627727117 9.67640687578445
3.8823506793619704 0.4968761587611077 8.717825808904458
0.5886706604661521 1.1049939851706987 8.318597318603599
1.2159990190159156 1.8689736622042186 7.337736433666278
0.018403945891143136 1.711816020642603 6.604436363780853
3.154756923796214 1.331451196773969 6.146405368449262
2.741962390613902 0.9659958334139032 5.527957650121023
-1.3383709034023754 -1.096598235787962 10.022095322460187
2.552340034021312 1.8846382300853648 8.302590312487636
-1.8869963795805353 1.2225729355717911 7.519914976631182
0.6169299726740702 1.2865457503007112 6.655574137143324
-0.34900845213282167 1.7366066936269222 7.341738327826055
3.2613505660607887 1.3684431192159632 7.053667541144688
3.2973659065529755 1.4974703104821623 6.688035741825218
0.09117291556949864 2.1126724476497456 8.459775969885202
1.1602175696527546 1.726888054369252 6.426180368206011
2.875880798490488 0.38232282669825324 7.198285574392455
1.5626731405147147 -0.7566755166273565 7.608025943624187
-0.3085203424684068 1.6026203380375377 7.792005469915868
2.9375944972841808 1.36309347973119 6.907350331745646
0.269192786657103 1.9827517034485012 8.030650187868968
2.4526043072417334 1.7031346736681128 7.6240817439107875
-1.9423434069409253 0.6994089953234633 6.638738869699554
3.088507736665773 0.46345413645841127 7.5189951916084485
-2.047960301171283 0.5096100209371741 7.817236180755276
2.068631996849597 0.6690736057575217 7.054925523600177
-1.9773458831017834 1.1638760428010693 6.615120557494086
-0.26855475269038154 1.6769117821346033 7.796391684448093
0.3451510486358079 1.8069116414782003 7.465017747367049
-1.9170739451144927 0.41760090169706515 6.577410291608462
0.6184018846525 1.8652119059504608 8.337119322470743
2.155796693401971 0.627027073539518 7.477042723467896
2.8765199365484664 -0.23414184740594252 6.799483527724148
2.8220233531023298 -0.18907831707375172 6.941784789775609
-1.9461980982557732 1.4981948377909768 7.882227159131848
-1.8419871690898697 1.3412623340873284 7.515840186386853
2.17811264272571 -0.7084441172871315 7.29358464401022
1.6819323512180036 1.4095093728573453 6.7998232243537
2.83818522275998 0.3455398624076947 7.214494840323656
1.328523102279552 -1.1043586538547854 7.4469469301736515
1.5761826916502735 0.5718886414400384 7.647644825621358
2.5231113333105752 1.7688392373025315 7.691519274367793
3.211882924570455 1.6410906195718562 6.698566555200844
1.0023476657048045 1.5244795075399487 6.708879641439352
-2.035004931747021 1.38775305628319 6.711346889157866
-1.4683488887348748 -0.34573942732638235 7.2541774409816995
-1.8998881107525665 1.2783132526797463 7.609084994253761
-1.9020773460423035 1.5093891830704942 7.255302832638856
-1.845495799315268 1.4252952298677872 7.7118576307715685
1.7115946130546855 0.6225211436340315 7.148337226958851
2.034119224083545 1.2349372471353077 5.346408408803117
-0.9847599550285997 -0.7493773899627533 7.580298901131597
1.6270913943934606 1.650282553864439 12.409404910146822
1.7469406551347737 1.646521029952963 7.150308445758934
1.5915206562824231 -0.7308901232114378 7.456334625586855
1.1137695144072917 1.620722057156402 6.135149288142672
1.6710621529307692 0.6320362435478647 8.283295037155957
2.792636161367816 -0.7291841437627259 7.533312118759707
2.55284755842461 1.5665356267179649 8.506744025609146
1.6426209117262867 1.9138357148996703 8.738456052535215
3.31419045425137 1.1503975392601626 7.486250503309743
0.3111952678363521 2.5854908158275136 13.89734478337562
2.5445413234213587 1.6734696349583502 7.835397058912261
2.783371448471187 -0.4770484308647061 7.202233402912238
2.751108056376137 0.020803840390148653 6.703891434963503
-0.17024918970566977 1.454669781099927 8.017875340989947
2.7257584285255834 1.623017051165139 6.886552442410912
2.647231313085159 1.381480037068331 8.999669266704682
3.8874323891028615 0.13890669391294813 9.090256096785104
2.4322892475481135 1.8546193162720859 7.967254193003327
-0.33318037953421653 1.5186848743218626 7.505593299033095
-2.012905699606106 1.4515716320773797 7.0736330691296585
2.4007371830693196 1.570088969403968 6.4509361653082
2.1783032068547303 -0.6654617890777674 7.405640237171505
2.990726756824807 0.5612141798078096 7.179907013596857
-2.0028900760436477 1.3089192573037316 7.228459403835051
3.0770160048657758 1.5954420541794438 6.269031240850137
0.10333190861976282 1.5258268932043133 6.975643928197594
0.5544207551429146 1.3570791813800263 8.08682616034832
0.9662039186672394 0.5643781031812307 7.38696803817753
1.6794882455938356 0.5318534138053446 7.713000395301467
-0.3282095771801732 1.6777850385656528 8.15345570234412
1.464005512324569 0.6892085426768998 7.499476114027232
-1.5785511937142043 1.1010288657222689 7.199782046279825
1.4466760505252207 1.3571787113426366 8.612536107048816
1.5291956478954174 1.8140978045887688 7.098687508365165
2.795730059658683 -0.7173411544311503 7.325984511130756
0.9696844834185773 0.7554823603353189 7.233082191526654
2.922075138042631 -0.5099836798411354 7.4425207509910924
-1.8888335174719078 1.3753880524949746 6.556654542991541
-2.0092546290495235 0.6883413710994185 6.706992773883647
1.0051508785467167 -1.1841702589040097 7.552099807863533
0.7881726352510519 1.4836523691785035 6.747654242967435
-1.253969342019885 -0.4900460591101039 7.6128322094141945
-1.890258830168194 0.4497593967353191 6.90567649031535
1.4445899288753918 1.6436713436563386 7.9985825099192
-1.342610572017077 1.85740235031029 7.4094543277817815
0.8211283015162417 0.5798116697682232 7.877920357569679
0.7884109995029847 1.6844251322135455 7.8903440749608
2.53574172759042 1.8660015192156134 7.675846224073366
3.11126683298983 0.4959247148128936 7.599882404039516
-0.3294325998990766 1.7025217088008024 7.828586601225711
2.200103728191048 0.6201960311523227 7.308538563735449
-0.9652339703428714 0.2903595231328005 6.291760410676596
2.397229491250756 1.8708694157644286 8.640154367422483
-1.3164154777455979 -0.588891681494617 7.675782847996025
1.7050222536276654 1.2944529577252735 6.78782109206073
-0.352820489618536 1.5975094599572435 7.37509431670408
1.6734961406696998 1.6427567594335346 7.062323565711471
-2.082472365409458 0.8533933793673363 6.851759205594487
1.1566331216722585 1.6858015336341197 6.6351079097065355
0.06844414107599439 1.3345739303319846 6.915054801667189
-0.20759825178695435 1.564657359578119 6.972069833528509
3.228342146308825 1.454949725899262 6.2914136814166355
-0.6568911242473872 -0.7253829685204238 7.654290652542079
-0.31469393261381734 1.7440465010008024 7.821770481665568
2.8331033365339895 -0.17418345370801458 6.931313747288786
-0.09426133592198993 -0.7962145629595435 8.010659062206887
-1.0266374854995357 2.026515518582161 7.105026053296006
-0.8252216535542235 -0.7063630550988731 7.475139879216768
2.7724872054800294 -0.4575964600041609 7.016990717684431
1.2213681801146088 -1.2164600626283177 7.585852524204061
1.8018090262868767 -0.664798888315114 7.3412773013538555
1.7007299066119916 1.2596850679020193 7.325150338913183
0.8398636940690274 1.1291935934148398 8.1916013074523
1.0016072505479814 1.2437460061375945 7.014165279681083
-0.8121519328130806 1.6267248804995487 7.659084794132859
-1.7977184525825785 1.5344403066195527 7.497663471231896
-2.0426863333745033 1.5029874855269902 7.16886398624645
-1.9261206871619425 1.7692963047551464 7.571398922138452
1.6431455084153392 -0.5476993225570927 6.366610314379497
-1.5144110865184923 -0.38378265402201295 7.51482197799929
-1.7763604271311406 1.7334075480850535 7.528982538826613
-0.3401956611078088 1.810564786473712 7.280122914278355
0.953762862249485 -1.7247144770019898 8.383087043955681
2.3693292112580373 0.7555422795498561 7.26832463216461
-2.0694555969643735 1.0704030465193102 6.825842731964628
-0.46968099230111915 -0.7126218239841027 7.300372541369911
-1.5418186131107525 1.7877185841072465 7.183434503959766
0.5956229635297705 1.6675518068470758 7.452347409147122
1.379367784634304 1.7144429723114523 7.706647464525092
-0.1765254575413655 1.6154623112942308 5.720300608285605
1.5532004243268245 0.6219101333893053 7.7875708142168705
3.2758420378915236 1.2945155801227834 7.37151816414506
1.7967400695336686 1.8057629221664349 6.755253219797127
1.6803993961779886 0.5984562320691578 7.778047940709125
-2.147663660233486 0.8152203636726054 6.9685764054204995
0.7051004352719494 1.7135302067945357 6.836336104204804
3.0307038612609363 0.4325808694404373 5.91118758287504
3.7416583802175105 0.3303989063733911 8.903443322251627
-1.9465262241587178 1.831579071627839 7.451615945984395
0.1422430775684145 -0.8328491003309024 7.483681787869925
-0.8151031878917738 2.079195775738955 8.101242100432342
3.8235758925207053 0.338242816831681 8.338735548772037
-0.29117813790701846 1.8272221095154313 7.1214636924904715
-0.9129515194965525 -0.6867438525886089 7.689417346617313
-1.6260264061000411 1.158939350214265 6.862139385540344
3.0993290578022727 1.3020271760441748 7.118280713950119
2.917674848287847 1.312001969764917 5.735964400262542
-2.1300274618432065 1.4813641108830564 7.2735251072042235
2.7998511938524793 0.039080408733318917 6.889017248299158
2.5131053039192808 1.501918730398542 7.86897246867508
0.4027907166868059 -1.1892251838225298 7.542668198178946
-1.6265858096380614 1.7301502698062579 6.904225132139347
1.572405239205994 1.7430633874569044 7.897975111838969
2.099015373268299 0.8954386076756875 7.150177395644601
-1.7794787928797953 1.108792783577788 7.347047266494222
1.4727533791695901 0.7656777022607619 8.01213893604375
-0.30205015229673116 1.8263442195931618 7.42833966200951
-0.5991201717224339 1.543660602134888 6.99376893145107
2.3634239780451773 1.0980764297334704 7.206821189290962
0.45324080136860684 -1.2342599845053903 7.674444996886793
-1.8864553509508801 0.4920026382268464 6.957009926565869
2.909569645506801 1.6636935659393959 6.837302238821992
-2.0238776719824956 1.5524686764628806 7.267394842831412
-1.9479217789680432 1.250898977376345 6.869958278525504
2.163267928085067 0.8823453861444825 6.295404627723405
-1.925807103750549 1.5517708984192962 7.046387756347206
2.0002325432015184 -0.6676431635010389 7.424736572071713
2.9583270709969542 0.508292688892674 7.308909758328395
2.8189743272638275 -0.5541537378359359 7.297894803815204
1.4776518725554268 1.4795916945763463 7.719807814189391
0.9896137239966405 0.6214225777124724 6.7654444675642065
3.532693847615424 0.3990024914479623 7.195443088927439
-1.9829238633341824 1.8435144572833497 7.843548268676695
1.7160068866379876 0.5958488287925436 7.691029469186743
3.191211230777114 1.6334489739584401 6.515030690650304
1.691624741492893 0.47316150713416316 7.88881006624197
-0.019590607744194966 1.1943912500443283 7.5722652599303295
2.3489029934327075 0.3505229422744678 5.146325284257235
-0.3374289423355945 1.794472899972023 7.025320947784305
2.66594657315068 1.7593527064089898 9.151038099855354
-0.09907152504319405 1.6176740945381987 7.700324103012305
2.1148376008052625 1.2299738016196917 7.884058711035209
1.6790047082565478 1.1840550000118522 6.541393365952516
-1.24968708139165 -0.6989104490203594 7.719501096136532
-0.3412242846402221 1.7016309609077158 7.482580751088873
2.034363259518294 1.2166438384239397 5.5873745300316315
-1.9974206001517205 1.2028123775083561 7.093871870082518
-0.39177594685836614 1.5969235224441107 7.636454211464134
-2.680706575484145 1.1310925918065093 8.595266429434664
-0.2672042464793926 1.7553369271190296 7.981558514020826
-1.8177789409567273 1.4590039112523987 7.496786612896579
3.297639966277035 1.5952427636071322 6.7044319567293735
-1.8493485182581173 1.761123724070302 7.52330604447993
2.944007216828189 0.5296409724266253 7.156857572046761
8.41122650646128 5.079028821316214 20.503253819237845
-2.0547493581061884 1.2053450724270351 7.324160550025377
-0.9728766118243608 1.8240571406597412 8.038684779696487
3.2649167392151766 1.5732389283058819 6.790970808866932
-1.8715657666758228 1.6025317141058082 7.461942719038457
-1.8739781161587743 0.8500435940829947 6.969885958074391
-1.3530252240342509 -0.7270109587293022 7.794747018508434
0.4632465680032838 2.048771060495388 8.27518729173417
1.4658493588187733 1.347803545024186 8.218434843794952
1.0625810995388552 1.8050840442060556 6.880259678991306
-2.1017838829891726 0.7527522238160895 6.907776629255071
1.6904344459982255 0.528637035842926 7.349885092981435
0.5589839029555727 0.7835690969845216 8.491889822265167
1.3364317743397895 1.6830979058862272 7.127914549660458
0.245628853431907 -1.0225016954251729 7.5614816808758825
-0.7120284610837775 -0.7672484983739236 8.046563171810751
2.2911547712047797 1.7871486874573175 7.110866628050992
